ply
format ascii 1.0
element vertex 1225
property float x
property float y
property float z
property uchar red
property uchar green
property uchar blue
end_header
2.902923 -0.433416 17.729342 19 18 14
1.320384 -1.172254 17.181810 227 191 186
-6.125463 2.769852 20.306299 242 219 203
0.655318 -1.059298 17.298542 1 1 0
1.314952 0.024841 17.102943 170 166 164
2.464681 3.168570 17.573332 236 231 217
-6.125463 2.769852 20.306299 242 219 203
0.056490 2.184363 16.208679 173 174 168
1.887109 -1.097157 17.220999 204 195 186
-6.489238 5.517663 16.883265 255 236 224
-6.489238 5.517663 16.883265 255 236 224
1.336647 -1.809999 17.222263 146 56 61
-5.473278 5.024922 17.809786 254 233 220
0.740412 -2.293932 17.410564 70 12 11
1.324835 -1.254734 17.161507 71 0 0
2.361324 4.290221 16.902397 161 158 152
0.802427 -1.044773 17.117052 233 229 220
-1.024215 1.588802 16.648546 138 138 136
1.805020 4.238955 16.485344 49 46 39
-1.024215 1.588802 16.648546 138 138 136
-0.408419 2.572690 16.086966 9 9 4
-1.182248 1.859834 16.752182 221 218 209
2.815125 2.131691 18.146999 152 151 143
2.084713 -1.740210 17.155821 209 198 194
-1.100945 3.021418 15.569495 254 252 244
0.738725 -2.406765 17.437525 245 228 218
-7.431772 4.680679 17.374809 69 41 29
2.780577 2.512291 18.021072 98 91 75
0.748074 -3.044196 17.701855 12 13 8
2.780577 2.512291 18.021072 98 91 75
-0.416239 2.040362 16.259275 243 243 233
2.365139 -2.497749 17.373875 5 5 0
-1.014572 1.702621 16.751831 254 254 246
3.036267 3.097564 18.184166 136 130 114
2.988941 3.533554 17.896881 251 249 236
-1.379950 2.204705 16.083843 254 254 243
0.731633 -2.319421 17.468176 255 232 225
0.593322 -0.734095 17.158115 5 5 3
-7.870983 4.663102 17.375751 66 34 22
3.274173 2.721349 18.517849 144 141 134
2.436591 3.356188 17.490372 87 81 67
-7.179472 5.395356 16.826368 167 136 116
2.415520 4.253732 16.883055 150 150 140
3.034361 3.380935 18.046959 247 242 228
2.697877 2.485452 17.911219 62 56 42
3.274173 2.721349 18.517849 144 141 134
2.689083 2.553380 17.939690 53 47 28
2.989278 -2.113189 17.720963 129 130 125
2.989278 -2.113189 17.720963 129 130 125
2.696238 1.854160 17.991901 6 6 0
-0.597181 2.521200 16.080179 213 208 196
2.673359 0.631654 18.029512 2 2 1
-0.626381 2.633310 15.854635 253 250 241
2.431626 0.157522 17.534193 108 109 104
0.686482 -1.680395 17.259075 255 244 234
0.556046 2.972631 15.968668 69 66 59
2.626644 2.684891 17.833521 48 42 30
-0.603784 1.911057 16.369984 250 248 242
1.616221 -1.607484 17.142040 89 3 4
-0.470631 0.923206 17.258358 246 242 231
2.647864 1.799190 18.008286 6 6 1
1.934096 6.016445 15.660030 42 37 19
2.656340 0.815248 18.079086 2 2 0
2.539424 3.084264 17.646074 252 246 230
-0.636836 2.535026 16.031944 146 142 133
-7.606492 4.768584 17.063789 168 140 126
-7.606492 4.768584 17.063789 168 140 126
2.597097 2.969717 17.755688 128 121 105
2.607024 2.731307 17.846304 81 74 64
-0.779918 2.562401 15.841802 21 18 11
2.595717 2.853807 17.771925 231 224 208
2.526011 -2.433462 17.347414 20 19 15
-0.848004 3.085128 15.656650 254 251 243
-0.853695 1.176886 17.392496 228 226 215
-1.256625 2.011327 16.449083 199 196 187
-0.859208 2.539805 15.974033 198 195 186
1.896257 2.949395 17.081579 4 5 1
-7.580388 4.950862 17.107672 181 151 141
1.865210 0.622171 17.208359 24 26 23
1.859196 -1.007678 17.232300 213 207 195
1.831138 3.097093 17.017416 4 3 1
2.448566 1.598968 17.722065 9 10 7
-0.643911 2.198986 16.181725 132 126 114
-0.643911 2.198986 16.181725 132 126 114
-0.354509 1.209815 16.958805 36 37 32
2.056903 4.307848 16.608547 13 13 13
2.367461 -1.339312 17.509602 121 123 120
3.180806 1.662230 18.425680 99 91 72
1.816923 1.867548 17.025698 11 12 9
3.251416 -0.428521 18.132755 114 116 115
-7.304555 4.765521 17.316017 172 143 129
-7.304555 4.765521 17.316017 172 143 129
-0.319532 2.110380 16.211224 238 235 226
0.656960 3.081450 16.126587 254 253 246
0.684728 0.797692 16.738575 255 254 245
-0.319815 2.095350 16.316782 244 242 237
1.908526 0.240122 17.275229 78 78 70
-7.204581 5.045448 17.087843 181 148 129
-7.204581 5.045448 17.087843 181 148 129
-7.204581 5.045448 17.087843 181 148 129
3.340372 1.207347 18.595203 42 37 18
-0.286246 2.111874 16.371025 220 219 212
-7.571579 5.213457 17.276133 172 145 129
-0.260134 5.093381 14.904857 129 126 117
-0.260134 5.093381 14.904857 129 126 117
3.196855 1.497221 18.411415 57 51 37
-7.500740 4.940171 17.190296 188 156 141
-7.633301 4.570457 17.506758 68 46 38
-7.519555 4.818596 17.253805 68 41 36
-7.519555 4.818596 17.253805 68 41 36
-0.298317 -1.273704 17.958565 36 38 35
3.351137 1.247834 18.599915 220 211 194
1.778796 -0.873703 17.204910 254 248 236
1.778796 -0.873703 17.204910 254 248 236
-7.229858 4.868949 17.231449 176 148 137
-7.411207 5.115595 17.033224 69 42 33
-7.229858 4.868949 17.231449 176 148 137
-7.538948 4.731201 17.337757 75 50 42
0.685822 -1.771268 17.331604 255 233 221
1.760289 -1.352182 17.107437 251 239 227
2.152831 0.144011 17.288769 1 3 0
0.683703 0.801939 16.925465 249 246 237
3.395679 2.242402 18.759594 11 7 2
2.051216 0.986492 17.292564 228 225 215
3.229095 2.768998 18.431536 53 50 41
-7.513901 4.633777 17.376341 58 31 22
-7.328331 4.536584 17.530512 68 41 26
-0.250117 -0.477745 17.388939 254 252 239
-1.328666 2.231402 16.033276 245 245 232
2.138836 1.057903 17.405134 210 207 194
-7.449888 4.831547 17.275211 179 148 137
-7.449888 4.831547 17.275211 179 148 137
1.558112 5.728200 15.401738 33 30 24
-7.312745 5.208071 16.959885 164 136 122
-0.247845 -1.574275 17.873800 25 25 23
1.743177 -1.579233 17.206644 105 4 14
2.120244 0.188351 17.238947 33 34 28
1.948917 6.056127 15.675408 107 97 73
1.948917 6.056127 15.675408 107 97 73
0.581897 3.424011 15.862841 239 235 226
3.258866 2.763659 18.495743 145 142 135
-0.221650 1.272836 16.716522 21 22 20
-7.187434 5.394154 16.722668 49 23 11
-7.187434 5.394154 16.722668 49 23 11
1.738130 -0.871403 17.265106 255 254 241
-0.221115 0.346749 17.304790 96 93 84
0.691290 -1.809266 17.305193 255 243 231
-7.490760 4.640345 17.468674 181 149 134
-7.490760 4.640345 17.468674 181 149 134
1.716831 -1.099904 17.144455 235 220 209
1.718009 -1.474028 17.165329 144 37 46
0.942511 3.232444 16.054638 71 67 56
3.403462 1.246723 18.720760 102 94 76
1.002291 1.358761 17.025604 242 239 233
1.020270 -2.116218 17.327579 109 26 34
0.684433 -2.116449 17.433674 255 243 233
1.005616 0.200431 17.056047 3 4 1
0.272777 5.006856 15.020366 214 211 198
-5.709190 4.180302 13.745560 44 16 9
-5.709190 4.180302 13.745560 44 16 9
1.703016 -0.207186 17.136164 245 241 230
1.702844 -1.126560 17.152821 206 173 168
0.270891 5.003091 14.925849 18 17 14
0.266767 5.041706 14.911175 11 12 5
1.700528 -1.321778 17.181917 105 17 24
-0.546273 2.645947 15.813735 255 252 245
0.982808 2.078562 16.616085 1 1 1
-0.598058 0.119503 17.395378 43 42 38
-0.550660 -1.219250 18.475985 64 56 45
-1.973106 3.039460 15.371016 2 2 0
0.289277 3.300491 15.806036 215 212 205
1.953567 4.278121 16.577730 168 164 155
1.685596 -1.272367 17.196949 245 219 212
1.030979 -1.842143 17.235626 111 13 26
1.690412 -1.829678 17.277309 249 204 199
2.182495 2.374478 17.458408 2 3 0
0.989975 0.233915 17.019407 250 250 240
0.305198 -1.045054 17.423914 73 70 61
-0.488877 1.957109 16.393967 12 12 7
1.685974 -1.799078 17.253042 94 7 12
1.040445 -2.154228 17.381498 93 1 6
1.681332 -0.776403 17.224512 255 255 243
0.989532 2.408287 16.484062 249 249 239
-0.167166 1.846494 16.481886 254 251 242
0.251986 5.124876 14.887118 3 1 0
1.672993 -1.498339 17.156950 92 14 16
0.330868 -1.696611 17.365644 1 1 1
0.295724 -1.384600 17.447203 213 209 198
0.302173 3.357059 15.894317 7 7 5
0.260552 3.731091 15.577983 244 241 234
-7.045810 2.878669 19.774378 181 152 138
0.982368 -0.143332 17.043989 19 16 10
-6.784109 5.953653 16.400942 60 30 19
0.259971 3.734627 15.591420 244 241 234
-6.112477 4.975035 17.596848 55 23 8
1.676050 -0.933152 17.242884 248 242 230
1.672266 -1.040559 17.224312 246 227 217
-0.167592 0.411291 17.190395 255 255 250
-0.166849 0.411061 17.176910 255 255 250
0.292350 -1.364854 17.520258 221 217 206
-0.555134 1.875424 16.361094 148 148 140
1.471712 5.743068 15.292498 39 39 37
1.625733 1.755227 16.868109 221 220 215
1.637914 -0.219823 16.998215 255 252 241
0.254503 3.768801 15.573675 215 211 200
1.653897 -1.478253 17.178869 79 13 13
-5.886557 5.501148 17.039858 255 247 233
-7.037353 5.103720 17.076405 55 29 16
1.050517 -1.701046 17.199333 227 150 150
1.050517 -1.701046 17.199333 227 150 150
-7.193050 4.749526 17.456848 66 36 25
-7.193050 4.749526 17.456848 66 36 25
-7.239204 4.478637 17.574223 67 42 36
1.656269 -1.261467 17.229353 253 228 224
0.934763 2.884314 16.435862 8 10 9
-0.143044 4.233399 15.494527 3 5 2
-1.506680 3.218178 15.343619 15 14 9
0.985537 -1.860322 17.305128 125 10 22
-7.056082 4.938257 17.212545 67 42 34
1.644369 -0.690583 17.237196 5 5 4
-7.056082 4.938257 17.212545 67 42 34
1.576026 3.498886 16.600412 1 1 0
0.303883 4.956817 15.114297 3 3 3
-0.134469 0.438704 17.214529 255 255 247
-0.127897 2.159049 16.241753 208 207 202
1.072347 -1.641282 17.192869 105 8 15
0.966079 -0.223118 17.084806 203 199 187
3.513427 -1.308151 18.048243 187 181 160
0.369209 -2.002544 17.607050 156 156 154
-7.101988 2.842225 19.657818 249 227 216
10.066319 3.452821 24.661486 107 94 77
1.082615 -0.061418 17.080063 5 7 4
1.081604 0.213422 17.047180 6 7 3
-0.585393 0.087184 17.485689 37 37 35
1.052464 2.379842 16.571869 20 20 18
-0.113843 3.449646 15.888371 235 232 224
-6.226126 5.402272 17.206188 254 237 222
1.085411 0.270861 17.034632 193 190 181
-5.992316 4.914180 17.644287 63 34 18
0.370106 -0.966378 17.389097 6 5 1
1.107911 -2.076558 17.345091 81 4 5
1.107911 -2.076558 17.345091 81 4 5
1.035879 3.315073 16.101198 200 200 192
1.584769 0.908098 16.985594 125 121 110
1.588921 1.518081 17.043818 3 4 0
1.605979 -1.744598 17.238558 166 32 43
0.237371 0.688575 17.017876 3 3 1
1.956189 0.615961 17.246973 5 1 0
-6.532787 4.378245 18.015711 65 37 23
-6.532787 4.378245 18.015711 65 37 23
1.532161 3.572800 16.551687 1 2 0
0.195852 5.046398 14.865578 235 232 214
0.328369 4.971009 15.080399 180 180 170
2.000563 -1.512044 17.195343 215 203 195
-6.910646 5.135677 17.075897 176 146 128
-6.910646 5.135677 17.075897 176 146 128
-6.461985 3.344490 19.186275 188 159 145
-6.528009 3.163944 19.392008 247 221 208
1.583038 0.069186 17.112345 200 198 186
-4.880521 3.232399 20.251822 241 216 201
-0.090589 0.441434 17.221590 28 27 23
0.385253 -1.192179 17.350576 246 242 233
1.569297 -0.261334 17.132318 232 228 217
0.225927 -1.269339 17.487904 2 1 0
0.761567 0.554197 17.040598 190 187 178
1.375621 5.923378 15.114244 115 105 80
-6.950650 5.001627 17.242872 74 47 40
1.494458 4.000460 16.385328 232 228 216
1.566094 -1.594946 17.157084 93 13 15
1.553762 0.308165 17.054573 9 10 5
1.554636 -1.320932 17.126905 79 0 5
0.390562 -0.880246 17.283167 250 250 240
-1.881535 2.672749 15.723244 8 9 7
0.183321 4.754972 15.288136 15 14 11
0.932931 -0.980674 17.224245 3 3 3
0.183321 4.754972 15.288136 15 14 11
0.331054 5.356440 14.777544 26 25 21
-4.935097 3.372750 20.047789 254 228 213
-6.944182 4.887111 17.272285 65 41 32
-6.944182 4.887111 17.272285 65 41 32
1.152288 -1.699363 17.165949 94 14 21
-5.732127 5.331990 17.185390 246 223 210
-6.372976 3.469131 19.128748 247 224 210
-6.372976 3.469131 19.128748 247 224 210
1.154128 -2.019935 17.119486 111 19 25
-7.020127 4.717073 17.495634 166 137 121
0.929711 -2.019789 17.267544 92 13 18
0.334051 5.309440 14.789918 27 28 23
1.549162 -0.984720 17.293571 244 238 224
1.532419 -0.327922 17.107639 29 29 27
0.390110 0.727610 16.886110 208 208 200
0.943917 -3.016949 17.557499 12 13 8
1.538011 -1.675606 17.177250 95 4 8
-0.064263 0.515364 17.216459 232 232 224
1.469083 3.908840 16.449013 29 31 28
-0.060945 4.914015 14.978709 25 24 20
2.003425 -0.005390 17.297791 198 193 192
1.530746 -1.111380 17.153948 61 24 23
9.509068 2.630522 25.332876 76 73 66
3.508054 1.000535 18.811346 255 251 232
0.913723 0.234407 17.036116 244 240 231
3.508054 1.000535 18.811346 255 251 232
0.164346 5.021120 14.883970 218 213 200
1.166224 1.494443 17.050825 246 244 240
0.869758 2.779907 16.320066 193 187 183
0.919537 -1.209331 17.242031 242 234 223
1.521685 -1.079082 17.125914 227 209 202
1.791242 5.843867 15.538527 240 233 221
-1.678229 2.347815 15.996884 122 118 109
0.184301 1.554381 16.487368 243 239 228
0.848925 3.196552 16.032221 248 245 230
1.514939 -1.323225 17.113510 68 0 1
-1.855113 2.693361 15.689355 17 16 11
9.507969 2.744034 25.539724 216 206 197
-5.223801 3.273022 20.352793 131 99 85
-5.223801 3.273022 20.352793 131 99 85
-5.220200 3.381412 20.323416 245 219 206
-1.678229 2.347815 15.996884 122 118 109
1.174997 -0.442397 16.923983 44 43 38
1.185848 1.476730 17.081711 6 5 4
1.152651 2.397866 16.602436 13 14 8
-0.744420 1.003712 16.984941 255 254 245
1.499844 -0.276463 17.046227 254 253 241
1.508471 -1.683152 17.160862 90 3 5
0.756223 5.959452 14.529509 37 36 32
-1.684031 2.376570 15.966046 224 220 211
1.304680 5.918767 14.938353 125 116 87
-5.317900 3.122590 20.457491 243 220 204
-6.517622 4.728418 17.601068 67 40 33
-6.517622 4.728418 17.601068 67 40 33
1.520824 -2.790691 17.414888 9 10 6
-7.079138 4.408951 17.832830 70 40 27
1.179330 2.136980 16.783892 12 14 11
-0.029145 0.342365 17.279978 211 208 199
3.556259 1.793398 18.985329 236 229 212
0.149223 2.606527 16.089695 233 229 220
1.495132 -2.036542 17.374958 119 64 61
0.858118 2.355323 16.467926 17 16 12
1.460987 0.555915 17.025620 17 13 9
1.428385 2.995947 16.693274 202 197 191
1.221369 -0.864071 17.228767 2 3 5
1.219096 -1.220343 17.190605 243 225 215
0.368038 5.297038 14.846448 23 21 18
-0.012758 3.253646 15.867336 4 4 1
1.217121 -1.291446 17.131302 255 242 235
1.219209 -1.617900 17.159248 104 17 19
9.343443 2.592615 25.514706 61 58 47
-6.955657 4.567110 17.595522 182 150 137
0.597494 2.986602 15.960109 25 25 21
0.123720 5.091387 14.800712 59 51 40
-5.479067 3.271617 20.081884 239 216 202
1.437557 -0.323914 16.985886 112 106 101
-4.856480 5.142365 17.771610 239 216 202
-4.856480 5.142365 17.771610 239 216 202
0.148915 -1.254628 17.484646 11 12 7
1.245701 -1.173880 17.247883 237 225 211
-6.905764 4.658220 17.525898 175 143 128
1.985960 0.022656 17.275015 195 192 185
1.253577 -0.944857 17.289127 254 252 241
1.958334 -1.354062 17.207935 195 184 178
-6.828026 4.826506 17.339537 63 43 36
0.003148 2.193435 16.199520 245 242 233
-1.798879 2.720378 15.607989 254 252 243
-0.519589 1.993880 16.427954 215 215 205
1.205856 2.932634 16.511103 202 197 191
1.391019 1.662556 16.788012 3 5 1
1.424130 -1.477649 17.214399 248 232 229
-6.830995 4.604623 17.478361 67 43 33
0.815165 3.569659 16.064409 234 231 220
-6.209621 3.317564 19.501949 246 225 208
-6.960406 4.482720 17.830269 174 143 126
0.861372 1.166260 16.970390 10 7 4
1.258487 -1.186908 17.103201 91 23 26
1.269650 -1.738759 17.190184 121 28 34
9.029088 2.700220 25.274393 68 60 57
3.584169 1.608520 18.970541 111 102 87
1.495174 0.550144 17.241035 43 39 34
-0.587120 0.544716 17.230871 200 197 188
-1.632927 3.166883 15.346313 12 11 8
0.301526 3.360226 15.899354 1 2 1
1.217426 -2.312922 17.337128 223 205 198
2.829741 1.930768 18.159702 3 2 0
0.245681 5.014255 14.910713 186 183 166
-7.161656 4.346839 17.741816 67 42 38
-7.063703 4.297409 17.787590 62 42 31
1.090580 2.025457 16.543945 202 198 188
0.321102 2.668131 16.309252 196 192 189
-0.157408 2.168421 16.285782 80 79 74
1.927663 5.226283 16.036749 114 114 112
1.049847 -1.968502 17.302464 118 33 38
-6.102086 4.791519 17.648563 61 36 27
-0.146235 3.510584 16.032461 231 229 217
-7.261225 4.394861 17.666346 65 45 36
-5.923306 4.493631 18.107212 64 38 25
-1.937535 2.705744 15.734317 244 242 230
1.404894 5.914577 15.026885 229 219 195
1.613949 -0.929119 17.187384 255 252 240
1.807499 5.196336 15.980862 115 116 111
2.072647 6.166494 15.768229 123 113 85
0.677212 -1.741707 17.318398 241 234 218
0.853625 -1.570977 17.147192 254 224 219
-6.600252 4.538058 17.846266 174 141 126
-0.544804 -0.644918 17.866898 225 223 210
1.362854 1.670462 16.737974 216 216 206
-7.076256 4.730479 17.424252 64 41 30
0.245754 -0.240412 17.397242 19 16 11
1.595211 -1.546934 17.142061 99 26 25
1.123509 -0.997244 17.286585 255 254 243
1.391146 5.941079 15.059660 113 102 78
2.807559 0.353131 18.081427 111 111 109
-1.104665 2.880592 15.667906 251 248 241
0.858697 1.135031 16.916946 208 204 195
1.895880 4.290818 16.546959 8 7 6
-1.107279 2.619177 15.674890 101 97 88
-1.107279 2.619177 15.674890 101 97 88
-0.951004 3.079883 15.494006 225 224 213
-1.208002 1.623379 16.705549 254 253 241
2.457559 0.252640 17.568317 212 212 200
2.645211 2.635324 17.863811 54 46 33
-0.776835 3.591557 15.354331 179 176 168
-1.139086 2.066536 16.328665 199 197 192
-1.247248 2.034434 16.451166 4 3 1
-7.666725 4.707337 17.300833 185 153 139
2.368594 0.478308 17.482130 64 61 53
-7.359281 4.893871 17.393721 68 41 30
1.840717 -1.028726 17.167826 120 112 99
1.840717 -1.028726 17.167826 120 112 99
-0.348959 -0.097834 17.512177 171 168 159
-7.658163 4.696284 17.400169 73 46 38
-6.824059 4.507254 17.803257 64 37 26
-7.666625 4.606387 17.452814 158 129 115
-6.875710 4.336017 17.882965 177 146 135
-6.875710 4.336017 17.882965 177 146 135
1.810098 2.053537 17.066883 168 165 160
-7.666625 4.606387 17.452814 158 129 115
-7.666625 4.606387 17.452814 158 129 115
-6.652244 4.221653 18.136211 66 39 28
-6.875710 4.336017 17.882965 177 146 135
0.429252 1.098200 16.909006 249 245 234
-6.098830 2.949026 20.279274 145 112 97
-6.770030 5.047328 17.176382 63 38 30
-0.568545 0.112538 17.505207 117 117 115
-6.444771 5.104837 17.232817 62 33 25
-7.397853 4.461828 17.633291 75 51 41
-0.243789 4.491215 15.296359 5 4 2
4.270719 2.999190 19.962151 26 27 21
0.481922 4.093441 15.784786 186 184 176
-6.448495 4.716420 17.609421 171 143 129
-2.055733 3.030978 15.453955 16 15 12
-7.594342 4.579472 17.625507 168 136 121
-7.594342 4.579472 17.625507 168 136 121
1.216083 -1.592212 17.142653 252 215 208
1.216083 -1.592212 17.142653 252 215 208
0.863215 2.039721 16.591557 147 144 137
0.216829 -1.092464 17.360752 231 231 223
1.476575 -1.998729 17.284988 91 6 12
0.631192 -2.575820 17.564425 225 221 210
1.726287 -1.689103 17.223568 117 16 21
-7.103693 5.104602 17.127737 171 139 126
0.362604 2.673295 16.185221 6 2 0
-7.103693 5.104602 17.127737 171 139 126
1.698086 -0.902067 17.232630 110 104 92
1.698086 -0.902067 17.232630 110 104 92
-0.024492 4.795283 15.123496 6 6 6
-1.693278 2.682537 15.879829 139 138 133
0.828487 -1.704548 17.193529 229 216 202
-6.259645 4.943842 17.135199 173 146 137
-6.199485 5.010289 17.459650 64 35 19
-0.181680 -1.487317 17.844254 17 17 15
1.177499 2.090845 16.705126 1 0 0
-0.704825 3.627239 15.320385 189 185 174
-7.726555 4.687421 17.292747 70 43 34
1.461408 3.766333 16.444864 32 33 28
-6.958311 4.785034 17.373728 67 43 33
2.868422 1.971580 18.256992 23 22 19
-1.042180 2.196285 16.378407 172 169 164
-0.809646 3.006720 15.690850 118 114 103
2.630977 2.559206 17.948187 154 152 138
-0.809646 3.006720 15.690850 118 114 103
2.746438 -0.691899 17.354967 103 105 104
3.112289 2.799650 18.331923 251 242 227
1.867792 0.561472 17.135786 207 201 189
-1.249912 2.037608 16.472092 2 1 0
-0.845736 3.621633 15.412188 1 2 2
2.579416 2.702792 17.849152 140 136 126
-0.399517 1.462789 16.414007 141 137 126
-0.431855 -0.695505 17.714945 180 172 161
-0.852748 1.622473 16.806885 201 198 189
3.141892 1.576501 18.359667 88 81 65
-1.109709 2.113672 16.448299 185 182 173
-7.173187 5.142676 16.934849 177 146 130
-7.173187 5.142676 16.934849 177 146 130
0.487865 5.528064 14.567551 29 27 22
-7.124408 5.340369 16.831554 76 48 47
-7.124408 5.340369 16.831554 76 48 47
-0.335448 3.736941 15.302221 211 207 196
-7.094647 5.371351 16.780439 63 36 30
-7.094647 5.371351 16.780439 63 36 30
-6.598997 5.121072 17.196232 169 133 116
-0.350891 -0.518392 17.576586 223 219 207
0.064675 4.750438 15.227341 11 11 10
0.450827 3.947009 15.619306 213 211 199
-7.523379 4.948823 17.086733 60 34 21
8.717386 2.531553 25.480803 209 200 193
1.346909 -1.391736 17.196672 142 31 40
-6.663946 4.140738 18.129782 163 134 118
1.161782 0.723969 17.162907 156 152 143
-7.102715 5.199124 16.838537 71 47 37
-6.518643 4.618374 17.752110 165 133 119
-7.102715 5.199124 16.838537 71 47 37
-0.310604 1.018929 17.000599 233 229 218
1.373921 -2.215624 17.279476 92 18 28
-7.257447 4.952382 17.239407 171 140 122
1.301993 -2.191941 17.259830 74 0 0
1.296394 -1.030583 17.176586 248 244 233
0.032648 2.830372 15.886297 133 131 119
1.777145 1.416506 17.122721 13 14 16
0.853183 -1.040808 17.260103 215 211 200
0.499968 4.046489 15.737181 20 19 16
1.281227 0.022274 17.075796 4 3 0
0.023191 4.207978 15.561339 7 9 8
-6.776541 4.840422 17.416382 170 138 126
-7.322227 4.632024 17.466492 68 45 39
-6.776541 4.840422 17.416382 170 138 126
-6.776541 4.840422 17.416382 170 138 126
0.112280 -0.074115 17.354160 164 161 152
1.551318 -1.358861 17.170729 104 37 41
8.897418 2.673455 25.199577 175 168 162
-7.257895 5.322309 16.725334 75 47 35
0.633176 -3.056425 17.769318 3 4 1
0.633176 -3.056425 17.769318 3 4 1
-6.883228 5.086456 17.109680 65 40 35
-1.715400 3.059591 15.325244 217 213 202
-5.138493 5.088362 18.227577 249 224 216
1.231128 2.442487 16.621801 28 29 24
3.254541 2.116850 18.607922 106 100 78
-5.074207 5.033190 18.025906 250 223 215
-6.542355 4.991055 17.341879 168 139 123
-6.542355 4.991055 17.341879 168 139 123
0.107615 3.630045 15.596325 67 64 59
-7.134490 4.973406 17.049107 69 44 39
-7.134490 4.973406 17.049107 69 44 39
1.755885 -1.682750 17.181238 252 241 231
-5.794321 4.442335 18.145172 62 40 29
-5.688415 4.728081 17.807642 57 29 15
-6.696506 4.448753 17.826046 67 43 33
0.327504 5.373897 14.724456 197 190 180
1.242646 1.551950 17.095877 209 210 205
3.024381 5.379633 17.246729 122 113 85
3.024381 5.379633 17.246729 122 113 85
0.339716 4.901071 15.235268 25 25 25
-6.870771 4.739359 17.521156 70 46 36
-6.870771 4.739359 17.521156 70 46 36
-0.003235 4.134413 15.528590 1 1 1
1.991516 6.046686 15.748847 223 212 184
-0.720807 1.863065 16.599283 244 241 232
-7.381972 5.006032 17.130365 175 142 127
-0.506958 3.770201 15.453683 167 164 159
-6.654601 4.537124 17.804176 66 39 30
-0.214469 2.169949 16.218014 238 234 223
-7.238801 4.838127 17.367949 181 152 136
2.046448 -1.324510 17.274540 11 13 12
-6.861566 4.962973 17.313614 68 45 39
-0.022152 5.011217 14.875983 4 3 2
1.480697 -1.793439 17.218691 121 19 23
-6.861566 4.962973 17.313614 68 45 39
3.388398 -1.546260 17.668886 137 133 122
1.532635 2.201408 16.815496 10 7 3
-0.033703 4.971259 14.875849 198 195 189
1.392144 4.123424 16.025846 5 5 4
-0.789293 -1.253682 18.445459 128 116 94
3.063809 -0.694781 17.921309 116 109 91
-5.751529 5.166280 17.596836 252 227 214
-5.751529 5.166280 17.596836 252 227 214
0.145199 4.745105 15.197110 12 12 10
0.322185 -2.003942 17.668808 3 3 1
-7.325927 4.446261 17.667910 173 137 121
-7.325927 4.446261 17.667910 173 137 121
-6.086150 4.892097 17.614252 61 39 28
-1.872046 2.581403 15.866075 33 35 31
2.177035 4.174280 16.794746 122 115 99
-6.619288 4.417880 17.936789 70 43 36
3.471912 0.945359 18.781027 78 71 53
-1.595137 2.404943 16.038115 254 252 241
1.574212 -0.757988 17.222986 218 215 206
1.578724 2.246171 16.965979 8 8 6
1.143396 -1.753929 17.200520 239 185 183
1.080350 2.475370 16.588207 221 218 209
2.047596 0.921919 17.324833 21 20 18
-0.582614 1.094650 16.944883 255 253 244
2.301215 -0.640862 17.216311 139 139 139
0.377686 -1.304859 17.480762 252 248 236
1.926783 4.290493 16.540197 1 0 0
0.360856 0.727558 16.840332 80 79 74
-1.459589 3.202187 15.304927 218 214 204
2.301215 -0.640862 17.216311 139 139 139
1.023502 -0.125268 17.134098 33 30 23
-7.165886 4.782840 17.315653 77 49 37
1.015217 -2.420184 17.473595 214 210 198
1.553959 3.723965 16.542568 50 50 48
1.618401 -0.839670 17.198463 254 252 240
0.351038 3.332000 15.848383 215 211 205
-0.560556 1.938118 16.426960 221 221 213
1.524248 2.179633 16.620743 34 32 28
-0.127268 3.436977 15.949225 192 189 181
0.907178 3.151009 16.012482 29 29 27
1.667990 -0.286990 17.162966 16 16 11
3.461214 2.598202 18.837143 21 23 20
-0.151705 -1.087898 17.810349 3 2 1
-0.151705 -1.087898 17.810349 3 2 1
0.228140 0.712944 17.074535 230 226 221
-7.149715 4.637947 17.398306 69 46 38
-6.655452 3.509036 19.341661 254 230 215
1.683113 -0.923357 17.394712 115 109 97
-7.040345 5.051742 17.108734 71 46 39
-7.040345 5.051742 17.108734 71 46 39
-7.040345 5.051742 17.108734 71 46 39
1.579557 -0.312914 17.115465 7 7 4
1.032114 0.786312 16.948109 103 99 90
-5.869048 4.854878 17.725067 70 42 28
-6.958311 4.785034 17.373728 67 43 33
0.590011 0.329482 17.007908 217 214 205
2.061872 0.205478 17.189709 144 145 136
-0.868654 0.873901 17.494947 33 38 34
-0.848791 0.957795 17.098076 228 225 218
2.427997 4.123417 17.036087 117 109 94
2.462693 0.380527 17.651157 7 5 2
3.054060 1.646018 18.373598 149 145 135
-0.145110 1.093352 16.947971 2 1 0
-7.658199 4.725261 17.412516 53 24 12
-7.806427 4.689812 17.397137 62 33 22
-6.228809 4.862726 17.575634 68 48 39
0.070868 3.649905 15.622651 249 245 236
-0.159373 -1.052076 17.829086 5 4 3
0.842197 1.288272 16.960302 255 253 246
2.295502 -0.070237 17.340548 19 21 17
0.459793 -1.384732 17.298677 242 236 222
1.542274 1.237713 16.889574 214 210 201
1.391354 0.020912 17.103891 239 235 226
-6.098741 4.205559 18.407064 62 39 31
1.679707 1.306943 16.900557 29 24 20
3.337705 1.072311 18.693615 161 158 148
1.261519 -0.005411 17.020100 22 19 12
-0.030680 3.523076 15.939832 21 21 19
-5.504335 4.559872 18.138649 77 53 39
4.022117 2.639830 19.548441 19 18 13
0.217846 -0.239958 17.361818 58 58 50
-8.436446 3.496564 18.030075 246 242 230
0.053526 2.639579 16.125072 116 111 105
2.448780 3.356348 17.468847 238 232 218
1.852523 -0.966740 17.216883 198 192 181
-6.098741 4.205559 18.407064 62 39 31
-0.433595 2.612807 16.179800 105 105 103
3.817296 0.783283 19.387753 135 126 109
1.838673 -0.984580 17.298553 162 156 144
3.817296 0.783283 19.387753 135 126 109
1.266655 2.488177 16.615023 12 13 7
-5.239753 5.129925 17.633579 144 116 94
-5.164997 5.277267 17.459433 241 218 202
-0.291682 3.139915 15.791228 229 225 216
-5.164997 5.277267 17.459433 241 218 202
0.965857 1.369206 17.000463 155 151 142
-0.779402 3.131294 15.616089 252 249 238
-0.479454 2.583928 16.107325 101 101 99
0.668964 3.462077 15.881004 194 187 177
1.619873 -1.519845 17.152050 106 20 24
3.067751 1.616848 18.378180 160 156 142
2.296932 4.167045 16.876270 116 109 93
0.588809 0.331194 17.099825 217 214 205
-7.253781 5.161634 16.935961 70 43 36
-7.253781 5.161634 16.935961 70 43 36
-7.253781 5.161634 16.935961 70 43 36
1.365225 -1.750770 17.157635 98 11 18
1.365225 -1.750770 17.157635 98 11 18
0.445491 5.489964 14.500139 225 220 207
-8.902538 -0.949323 29.907986 73 41 26
-8.902538 -0.949323 29.907986 73 41 26
4.067188 2.694343 19.576363 198 198 190
4.067188 2.694343 19.576363 198 198 190
0.798551 -1.883762 17.340448 255 217 213
0.814459 -2.860842 17.619385 243 239 230
0.634414 5.776770 14.351427 240 241 224
0.059430 -1.673330 17.822630 39 39 39
0.059430 -1.673330 17.822630 39 39 39
-11.820609 2.565055 24.057673 29 19 10
-9.802392 -2.351037 31.985426 62 59 50
-9.802392 -2.351037 31.985426 62 59 50
1.335276 -2.033057 17.261868 103 46 42
0.803825 0.767439 17.058401 45 43 38
1.318718 -1.698089 17.156231 97 39 41
0.733900 4.631279 15.574201 221 222 214
2.877812 1.902473 18.196245 6 2 0
0.733900 4.631279 15.574201 221 222 214
1.318718 -1.698089 17.156231 97 39 41
6.453906 6.771976 18.822695 45 44 42
7.010186 5.889520 20.364639 235 230 224
1.312881 -1.491727 17.135044 95 23 23
-0.898456 5.593679 13.842248 193 195 175
-0.898456 5.593679 13.842248 193 195 175
1.305286 -1.255076 17.166975 95 15 16
2.899276 2.225089 18.101456 76 69 53
1.310907 -2.035398 17.266336 254 242 230
1.299093 -1.717020 17.166739 250 234 223
-2.350697 5.304072 13.780461 213 209 195
1.300141 -1.845460 17.223160 255 246 237
1.290358 -1.281427 17.121719 255 235 223
1.083103 6.246201 14.409069 179 173 159
0.855649 -1.112716 17.343538 79 75 63
0.855649 -1.112716 17.343538 79 75 63
0.859705 -2.186797 17.421646 95 14 23
-12.050292 -2.373645 31.794764 89 52 34
-12.050292 -2.373645 31.794764 89 52 34
0.447856 1.537540 16.718349 219 216 207
1.288230 -2.052969 17.257267 79 35 34
2.853648 3.592772 17.668268 94 85 70
1.281292 -1.782218 17.192610 151 34 45
1.276351 -1.567825 17.140881 91 33 32
2.873945 3.561711 17.720402 81 74 58
0.487432 5.519307 14.477566 228 222 208
0.487432 5.519307 14.477566 228 222 208
1.182307 4.118231 16.113886 10 11 6
1.256847 -1.692765 17.135242 123 19 25
0.878719 -1.225457 17.308252 11 5 0
0.733605 0.741257 17.130997 0 0 0
0.740435 -1.088888 17.292351 232 230 218
0.897285 -3.000056 17.612305 229 230 221
-9.210727 -0.422210 28.888996 112 54 42
1.178942 4.160015 16.121992 255 255 243
2.953699 3.312205 17.934580 95 88 72
-11.672126 1.679732 25.248819 31 25 9
-11.672126 1.679732 25.248819 31 25 9
1.874728 0.880431 17.106737 27 27 25
-2.179026 5.669390 13.345124 179 179 173
1.038076 6.299555 14.359569 56 47 38
0.742768 -2.138690 17.456953 122 16 28
1.248501 -2.050688 17.261896 245 230 222
0.749679 5.706738 14.508428 185 183 170
-2.237485 5.368297 13.814505 200 200 188
0.749679 5.706738 14.508428 185 183 170
0.810003 4.549368 15.648150 211 212 206
0.143647 4.733952 15.264058 241 241 233
1.211972 -1.864673 17.223663 255 245 240
-11.387651 1.755640 25.001894 50 38 24
1.207821 -1.732841 17.170963 91 12 18
2.991182 3.420669 17.901369 238 233 220
-9.964393 -1.445989 30.432625 82 75 67
-9.964393 -1.445989 30.432625 82 75 67
1.202384 -2.142010 17.269974 64 11 13
1.202384 -2.142010 17.269974 64 11 13
9.194140 3.100812 24.756191 72 66 52
1.164538 2.729280 16.751928 208 204 195
2.977029 -0.420683 17.701191 193 186 166
-0.691898 5.561030 13.996446 205 203 191
0.920891 -0.181893 17.181202 5 4 0
-2.162789 5.406631 13.794730 164 164 154
0.349619 4.923048 15.086555 252 250 237
1.191057 -1.834930 17.457243 85 6 10
6.290909 8.190431 16.748722 236 231 225
-0.691898 5.561030 13.996446 205 203 191
1.158000 0.276880 17.093637 66 63 58
1.158000 0.276880 17.093637 66 63 58
0.710726 -1.642354 17.274529 255 241 231
8.339162 4.825410 22.035568 231 226 220
8.339162 4.825410 22.035568 231 226 220
0.943479 -1.617828 17.247454 94 11 19
0.188986 5.188497 14.704646 199 195 183
0.188986 5.188497 14.704646 199 195 183
1.141146 -1.998568 17.266470 251 242 226
0.950024 -2.001127 17.349127 255 244 235
0.233754 -1.294885 17.539320 255 255 249
1.137010 -1.002025 17.263948 58 54 43
3.163342 2.626159 18.387638 95 88 72
-2.194725 4.985841 14.450861 166 167 159
2.362657 -2.476702 17.148327 251 251 242
-1.098230 5.633821 13.735960 189 184 175
-1.098230 5.633821 13.735960 189 184 175
3.914163 2.595868 19.434227 235 236 222
0.256641 -1.303296 17.567083 221 219 207
9.984470 2.747437 25.443394 80 67 51
-8.263173 5.569359 18.814022 181 151 141
1.007892 4.343800 15.892116 2 3 0
1.087814 -1.713309 17.207819 98 16 20
1.065881 -1.830565 17.251135 254 239 231
1.065881 -1.830565 17.251135 254 239 231
2.957137 5.363817 17.030205 79 68 41
1.061854 -1.725756 17.215876 250 224 213
3.200418 2.712911 18.404097 240 235 220
6.636222 8.745449 15.909243 8 3 1
1.012367 -0.458435 16.596415 254 254 245
-7.145878 7.242340 16.497614 248 225 211
0.311076 3.575794 15.994322 253 254 246
0.311076 3.575794 15.994322 253 254 246
0.935317 4.873571 15.493036 247 247 244
0.935317 4.873571 15.493036 247 247 244
1.005459 -2.145373 17.353025 255 238 229
3.237989 2.726882 18.410995 48 44 34
1.888715 3.013217 17.033613 159 160 155
0.860617 5.890940 14.461691 39 34 18
-10.954431 1.407171 25.494913 69 62 45
1.010678 -1.002672 17.282845 193 191 179
0.568536 5.966259 14.229771 0 1 0
-0.550590 5.163426 14.605232 201 201 193
-0.631076 1.904840 16.782972 12 8 6
1.824360 4.261709 16.447689 148 147 145
2.754382 0.462868 18.007057 152 153 148
-0.423147 3.818320 15.511839 226 221 215
-1.194135 5.669665 13.676059 202 200 188
2.330603 -2.489810 17.172115 255 253 243
-20.071774 38.035007 105.930283 208 206 191
-2.850389 4.436207 14.824086 240 238 226
-2.753006 4.854345 14.289565 214 211 194
-2.753006 4.854345 14.289565 214 211 194
-0.301717 5.103849 14.869119 195 191 180
-2.887391 4.374057 14.896865 180 176 164
-2.887391 4.374057 14.896865 180 176 164
-2.797437 4.790687 14.372997 208 207 189
0.608995 4.762465 15.394677 254 254 242
2.038600 3.382445 17.111843 27 27 25
-2.835712 4.644180 14.557828 174 171 156
-2.835712 4.644180 14.557828 174 171 156
0.608995 4.762465 15.394677 254 254 242
2.318856 -2.511448 17.167452 2 1 0
1.796111 0.866744 17.139750 11 11 9
-0.524875 5.170502 14.679376 206 203 194
-0.230226 5.443753 14.301239 186 183 168
3.375766 2.045333 18.680161 90 83 67
2.163144 2.432654 17.363508 253 253 246
-0.270750 -0.569910 18.129774 163 164 158
-0.503585 5.536263 14.175141 191 187 176
-0.256268 -0.784836 18.157427 253 253 251
2.361527 1.888613 17.596163 204 207 200
3.991206 -1.268824 18.440895 200 200 191
-1.812285 5.437014 13.882845 179 179 169
1.704006 -1.278673 17.083538 252 234 222
1.710903 -0.675897 17.174042 157 158 152
-2.889813 5.389636 13.478405 184 182 171
1.952900 4.237885 16.506626 70 63 53
1.483669 5.915969 15.019176 199 192 166
1.683311 2.164308 17.033554 210 207 192
-12.768536 -1.930286 30.822168 85 43 27
-2.965796 5.326054 13.569781 254 251 233
1.679951 -1.089752 17.107954 76 15 20
1.679951 -1.089752 17.107954 76 15 20
1.617773 3.458611 16.709112 172 173 167
1.617773 3.458611 16.709112 172 173 167
1.651051 -1.510628 17.080132 255 236 232
-1.586824 2.661229 16.284389 230 227 218
1.594216 3.523552 16.653162 213 214 208
1.618484 -1.076982 17.134377 62 3 5
2.721760 9.093435 14.758762 35 31 30
2.721760 9.093435 14.758762 35 31 30
2.276548 -1.366409 17.198748 169 171 166
-3.244982 5.048255 13.915336 183 181 166
-3.244982 5.048255 13.915336 183 181 166
-3.266328 4.973029 13.998530 241 238 223
-3.266328 4.973029 13.998530 241 238 223
1.611653 -0.943595 17.214447 31 25 11
3.408765 -0.397546 18.455763 8 7 2
-3.370193 4.801557 14.283326 166 162 152
-3.370193 4.801557 14.283326 166 162 152
1.378643 5.841596 14.885640 58 47 25
1.399703 5.626881 15.115147 208 206 199
1.584860 -1.427323 17.107437 254 229 225
2.260791 -0.066137 17.235899 241 244 235
1.555458 -1.123563 17.133085 221 187 185
1.536792 1.968290 17.028147 227 220 210
3.433635 -0.427144 18.486450 201 198 189
1.539125 -2.773049 17.253260 251 252 244
1.539125 -2.773049 17.253260 251 252 244
1.515236 1.647291 17.020710 254 255 246
2.216081 3.636834 17.103859 98 90 77
3.572253 2.402155 19.076519 227 224 217
4.430242 8.464253 16.085674 237 232 226
4.835043 7.733524 17.369699 38 36 37
1.478716 -1.496198 17.111397 117 34 40
1.478716 -1.496198 17.111397 117 34 40
4.835043 7.733524 17.369699 38 36 37
-1.509981 5.440910 14.038403 197 195 183
-1.774638 2.632178 16.274012 10 12 11
2.792135 8.969810 14.606449 41 40 38
1.452724 -1.963641 17.206142 255 240 236
1.452724 -1.963641 17.206142 255 240 236
2.792135 8.969810 14.606449 41 40 38
1.437001 -1.103004 17.136122 244 227 220
1.365974 3.891888 16.311934 218 220 209
1.365974 3.891888 16.311934 218 220 209
-12.280746 -2.201786 31.458361 102 55 37
6.090162 6.453492 19.518724 35 34 32
5.712886 7.157563 18.291243 232 227 221
-1.522210 5.697638 13.527759 176 170 154
5.712886 7.157563 18.291243 232 227 221
-1.575938 5.424007 13.982850 170 169 161
-1.575938 5.424007 13.982850 170 169 161
1.378092 -1.672280 17.140539 80 9 12
1.378092 -1.672280 17.140539 80 9 12
5.238858 8.204741 16.475574 5 2 1
0.779615 -1.805277 17.306601 226 211 198
1.362100 -1.548294 17.097235 103 22 28
0.548585 -0.978764 17.634245 24 26 25
2.695096 3.893377 17.350927 102 94 81
0.099311 5.029335 14.856610 11 10 5
0.099311 5.029335 14.856610 11 10 5
1.276143 -1.665718 17.144735 255 234 228
1.277873 -1.742811 17.155252 137 33 42
8.881092 2.875598 25.049341 71 61 49
1.253343 2.087821 16.789705 226 221 215
-10.510059 3.979620 21.369637 159 132 111
-10.510059 3.979620 21.369637 159 132 111
2.712209 4.034284 17.264717 255 253 241
2.714405 4.032156 17.259916 254 254 243
0.170639 5.087930 14.772738 19 16 12
2.722143 4.049717 17.236763 32 29 22
1.295143 3.968814 16.224562 6 8 5
2.057748 -1.688103 17.050608 246 235 229
0.770133 -2.856402 17.594303 248 246 240
1.366316 -1.157381 17.139431 250 216 209
1.373539 -2.059385 17.237751 119 21 24
1.955858 0.283161 17.095814 225 223 211
8.405141 2.336155 25.695829 65 59 51
-3.926083 3.145898 23.133087 71 50 44
2.722183 4.835493 16.944443 242 235 215
1.093099 6.322097 14.384886 232 218 189
-6.238101 7.378407 16.146879 226 202 188
-8.342372 0.094207 28.118618 59 52 40
2.947028 1.907192 18.175367 59 50 33
1.313047 -1.768664 17.160307 111 21 22
1.276247 3.995465 16.217415 1 3 2
0.474038 4.240097 15.816530 128 128 127
1.335302 -1.418211 17.098650 90 19 21
2.955052 3.331655 17.898680 249 244 228
-9.399425 -1.625994 30.899693 80 77 62
-9.399425 -1.625994 30.899693 80 77 62
-1.175214 2.162104 16.882118 3 3 1
-3.771845 3.190690 23.064890 67 49 37
0.735652 -1.616545 17.306131 245 218 212
-0.504846 -1.401891 18.636118 216 210 199
1.990715 4.255315 16.557943 65 60 49
2.056951 0.249365 17.101980 232 229 220
-1.136493 3.059025 15.953437 25 24 20
3.020014 3.058127 18.092381 253 248 232
-7.054978 8.152219 15.494007 225 199 184
-11.400657 0.696156 26.710623 217 205 193
1.986124 4.279816 16.537815 134 133 128
-0.850499 1.558040 17.132380 1 1 1
-6.688383 7.806736 15.696323 244 218 203
-7.998356 8.047353 17.759525 246 227 212
-7.975350 8.028771 17.718941 247 228 213
0.725034 -2.256255 17.458612 254 233 225
3.260283 1.337530 18.428226 64 58 42
2.664847 2.572376 17.838713 52 47 28
-2.871298 3.976925 15.350430 3 4 0
2.072163 3.693883 16.969311 116 109 91
-7.239540 7.383633 16.275446 128 89 72
-7.239540 7.383633 16.275446 128 89 72
-2.866793 4.260222 15.023700 6 6 0
-11.829371 0.811074 26.695608 53 46 38
3.160441 1.406765 18.418037 165 162 154
-8.268422 5.013402 19.557863 176 143 127
-6.905657 7.870564 15.623405 248 224 210
2.153290 2.413229 17.359503 1 1 0
0.718648 -2.233266 17.502934 246 233 222
3.163654 1.656368 18.329063 99 91 72
-11.974441 0.484114 27.295824 82 77 73
-11.974441 0.484114 27.295824 82 77 73
1.799440 -0.197763 17.171175 182 178 171
-3.671107 2.079722 24.845839 244 213 194
1.886832 5.975356 15.412393 68 64 52
-0.465087 0.941605 17.506376 218 214 203
1.899567 0.929596 17.150419 224 219 213
-3.583213 2.065137 24.863451 91 64 50
-3.583767 2.067771 24.870232 91 64 50
-8.043871 5.612500 18.683676 170 141 127
-8.043871 5.612500 18.683676 170 141 127
-0.451920 2.027910 16.745396 6 7 2
1.724254 -1.330433 17.068127 85 5 11
3.750688 1.445543 19.150675 241 237 223
4.338091 2.902025 20.013662 42 42 30
-11.429849 0.791386 26.662546 64 55 40
-6.606633 8.011170 15.424370 140 97 80
-0.224024 -2.274503 18.321598 233 220 186
-7.870439 3.222719 22.319494 130 98 81
-7.870439 3.222719 22.319494 130 98 81
-0.223009 -2.214404 18.276751 238 222 189
-0.202804 2.173158 16.650572 23 25 22
1.017499 -1.931162 17.307146 111 28 31
3.374664 1.239205 18.564928 102 94 76
-7.901285 3.133923 22.372467 255 238 230
-0.498816 1.994263 16.716049 12 12 7
1.658963 1.761710 16.958420 9 8 5
0.290863 1.552444 16.736019 246 243 234
0.986877 -0.139785 17.128227 19 16 10
-9.415116 0.541993 27.093483 63 59 50
-9.388243 0.930475 27.039478 215 201 175
-6.288867 8.157517 15.232164 251 228 215
-0.182254 -2.073573 18.249689 30 29 27
-6.288867 8.157517 15.232164 251 228 215
0.349208 -0.143490 17.603321 36 37 32
0.993647 -2.185251 17.377495 79 2 7
1.010810 2.446973 16.592352 249 246 237
0.351622 -1.623783 17.507175 219 211 201
12.457475 -53.487305 106.252129 18 18 10
-0.143230 1.437114 17.074087 254 252 245
-0.481721 1.157425 17.246090 59 58 53
1.629842 -1.443170 17.094704 85 29 27
0.968274 1.322355 17.127855 49 50 42
0.873083 6.390693 14.163172 125 114 84
1.615356 -1.320916 17.058676 86 0 7
1.085148 -2.319523 17.353481 255 239 231
1.071493 -0.088873 17.132015 30 30 22
0.976410 -2.067299 17.334888 103 27 35
-0.190437 -1.520623 18.114960 137 137 135
-7.770298 5.326138 19.045486 66 47 33
-1.290332 6.298975 12.980608 43 38 33
0.249007 1.501902 16.736908 13 14 9
1.024509 3.375897 16.128769 195 191 180
0.371547 -1.787485 17.526928 5 3 0
0.374691 -1.282101 17.531303 121 117 105
4.788817 -5.158136 21.026325 46 3 4
-6.642307 -0.250346 28.439173 216 188 167
1.526268 3.891109 16.450457 246 243 236
1.919950 4.233754 16.475491 47 44 35
-5.895836 7.266428 16.228676 253 233 224
-5.897086 7.264092 16.230541 253 233 224
9.715354 2.697113 25.490652 69 61 58
-11.111740 0.194005 27.543344 118 111 103
-11.111740 0.194005 27.543344 118 111 103
-0.089060 0.783775 17.271122 210 207 198
1.559231 1.486824 17.069853 1 1 0
1.496993 3.961208 16.401896 235 232 220
9.454163 3.012686 24.984879 60 53 43
0.197650 3.310358 15.946793 202 199 194
9.454163 3.012686 24.984879 60 53 43
1.548540 -1.418199 17.114531 92 12 16
-6.061242 8.110199 15.066643 147 101 89
0.921645 0.199931 17.095835 156 156 148
-6.211388 7.912609 15.468824 239 213 198
1.531242 -0.291482 17.093040 58 57 53
-9.115166 0.421238 27.440989 80 78 60
3.504596 1.743613 18.820795 101 92 77
0.408898 -0.888620 17.516819 61 62 54
1.134104 2.440134 16.593992 50 47 38
9.411859 2.834056 25.162073 228 218 209
9.411859 2.834056 25.162073 228 218 209
2.225227 -2.450088 17.113844 37 36 34
-1.728903 2.420332 16.485147 122 118 109
1.450482 3.700016 16.449337 1 2 0
1.507803 -1.576648 17.092577 113 49 50
1.145680 2.477602 16.564102 254 253 244
1.507803 -1.576648 17.092577 113 49 50
-9.539909 2.079312 23.920450 77 60 53
0.427434 -1.180462 17.525463 250 248 236
9.249246 2.998679 24.967327 59 56 48
-5.808282 3.432129 22.340839 243 220 204
1.507850 -0.965656 17.185793 108 102 88
1.438443 3.729377 16.448362 3 4 0
1.003028 6.297431 14.330193 77 66 44
0.168019 0.614534 17.396660 17 17 17
-7.340511 5.714541 18.499981 62 32 22
-0.021828 0.507872 17.459661 19 20 15
1.819078 7.914078 16.021244 75 55 46
-3.331193 -0.170629 28.440098 213 189 161
-3.331193 -0.170629 28.440098 213 189 161
1.212637 0.263508 17.117664 33 35 32
1.393608 3.812116 16.354473 121 121 119
1.457655 -1.322885 17.154867 73 1 4
1.218928 -1.609696 17.150335 104 17 19
7.192439 2.883599 24.386995 132 109 91
1.226442 -0.419570 17.076714 29 28 23
0.893014 -1.012208 17.304945 182 182 172
9.186072 2.688478 25.367294 224 216 205
-7.556974 5.105968 19.348129 67 43 33
-6.888178 3.700093 21.633579 246 225 208
1.254360 1.593122 17.114321 248 247 242
-9.728417 -1.488696 30.642836 63 58 52
-9.728417 -1.488696 30.642836 63 58 52
0.870967 -1.212019 17.320351 252 249 239
-6.047614 7.887245 15.511433 245 216 202
1.267192 -1.726771 17.151304 121 28 34
0.867139 -3.009828 17.610437 2 3 0
0.286769 -0.190149 17.588247 64 63 58
-7.986014 5.071816 19.428690 64 41 33
-10.432102 -1.451307 30.349121 77 72 58
-10.432102 -1.451307 30.349121 77 72 58
-3.949476 3.357781 22.754517 61 38 31
1.259470 2.127826 16.863722 5 4 2
-0.038720 4.889355 15.021476 21 22 15
9.059842 2.522228 25.540762 63 59 50
1.088476 5.807247 14.664811 24 21 16
0.751404 -1.810395 17.345600 242 197 189
-8.010715 4.905831 19.725456 170 140 124
-8.010715 4.905831 19.725456 170 140 124
-0.953718 5.310327 14.365681 1 1 0
0.021189 -0.817308 17.459293 198 194 183
-7.284336 5.128793 19.338661 176 147 133
0.744743 -1.690045 17.308134 227 194 189
-6.199819 8.054496 15.291497 245 221 206
3.269012 1.172227 18.515881 133 131 120
2.736557 2.277471 18.028160 156 153 143
2.331985 4.260798 16.801497 163 160 151
2.441093 0.253202 17.452930 212 212 200
-8.581395 5.252685 19.220903 57 29 18
3.700216 2.446365 19.211376 5 6 2
2.131954 5.826872 15.766207 64 59 40
3.486443 1.024225 18.743711 126 118 99
-1.608160 3.260985 15.711266 10 10 6
-3.667171 2.183350 24.489109 96 68 51
0.659216 5.962856 14.217515 236 227 196
-12.505038 7.593687 28.566601 52 25 16
1.235111 -2.257807 17.223783 89 18 21
-7.503420 5.602244 18.676992 55 29 18
1.130599 6.318053 14.442364 215 202 170
1.130697 6.332151 14.388685 136 122 93
-3.622056 2.190560 24.728331 226 193 181
-8.581395 5.252685 19.220903 57 29 18
-0.416730 3.846052 15.515185 7 2 0
1.733098 -1.435082 17.051472 84 8 13
-8.399090 5.078387 19.504074 168 136 121
-3.564283 2.131286 24.898998 225 192 181
3.487463 -0.418369 18.578138 22 21 17
-0.197789 4.596835 15.296697 16 16 13
3.419986 2.142186 18.716486 28 27 18
-0.387942 2.122512 16.593613 154 151 142
-3.969102 3.564404 22.472963 73 51 40
-1.375757 3.362920 15.632961 8 7 4
2.888103 1.963627 18.189514 137 133 121
2.877299 2.262410 18.078325 130 123 107
-5.615566 3.578029 22.221230 255 231 218
-7.261853 7.333207 16.327133 254 234 223
-7.261853 7.333207 16.327133 254 234 223
1.645040 5.810235 15.074188 191 177 151
0.753260 -2.317520 17.472982 82 2 7
-16.541449 -4.376335 34.994064 118 109 102
1.525038 -1.537447 17.088917 105 25 29
0.585077 0.339300 17.306494 203 200 191
2.862193 -1.762932 17.259682 105 105 103
-2.561900 3.630773 15.762857 90 91 87
-8.410028 5.386508 19.073761 58 31 22
-8.410028 5.386508 19.073761 58 31 22
0.818414 0.132507 17.276163 12 13 10
1.349567 -1.610404 17.122292 205 193 184
-7.004632 3.144231 22.647913 254 232 220
-0.309714 2.151071 16.660591 118 118 111
-5.802101 5.008777 19.664818 64 37 26
-1.144414 5.374807 14.259645 4 4 4
-8.346909 5.434363 19.055731 61 35 22
-6.567888 5.499724 21.146687 64 41 27
1.962988 4.287556 16.513735 3 2 0
1.962988 4.287556 16.513735 3 2 0
-7.210244 5.599383 18.646994 57 29 16
-7.210244 5.599383 18.646994 57 29 16
0.480166 -0.809955 17.463888 48 48 46
-4.555763 5.936512 14.544022 68 45 39
-8.024247 5.331338 19.108488 67 40 29
-13.719614 -2.237277 31.550549 95 85 73
-13.719614 -2.237277 31.550549 95 85 73
8.962292 2.587087 25.478861 189 179 177
4.224209 2.894558 19.799498 21 20 15
-7.001937 7.386263 16.193203 255 237 226
0.449932 -1.380011 17.556849 133 129 117
1.932342 5.910063 15.509563 144 138 128
-1.819980 2.386754 16.534073 126 122 110
-5.755867 7.658618 15.399037 138 94 83
9.206003 2.866016 25.165630 83 79 68
-6.529731 8.215958 15.180872 241 215 200
-6.529731 8.215958 15.180872 241 215 200
-6.600144 8.059441 15.372278 255 230 213
-8.350434 5.120196 19.449774 61 37 26
-12.637442 -1.011744 29.459270 109 100 88
1.673864 3.337625 16.789717 11 12 8
9.317625 2.903238 25.146276 67 62 56
1.141579 -1.582092 17.160555 97 15 18
-12.201140 -3.190410 33.059368 143 135 124
-7.163912 6.291628 17.671520 67 34 25
1.126318 -2.078389 17.325756 136 31 41
1.126318 -2.078389 17.325756 136 31 41
1.589041 -1.022468 17.131376 217 190 184
-5.707005 7.597432 15.769352 245 222 210
1.928817 4.276717 16.509853 4 2 0
0.305864 -0.213036 17.628868 3 4 0
-6.888859 4.627330 20.150511 167 138 124
-6.888859 4.627330 20.150511 167 138 124
1.590535 0.191181 17.182035 5 4 1
-0.751178 0.132169 17.941282 192 190 177
1.036493 -0.117676 17.084900 66 63 54
0.626015 1.599605 16.869658 240 238 226
-3.393170 4.475386 15.010182 49 50 39
-6.806165 8.271039 15.202499 253 225 213
-7.006174 7.244778 16.452513 253 227 214
-8.092672 -2.147599 31.862900 87 83 64
-10.363206 7.253771 24.272770 61 34 25
1.175674 -1.587511 17.145044 143 31 38
-2.561900 3.630773 15.762857 90 91 87
-6.805740 4.671901 20.064230 62 40 29
-6.805740 4.671901 20.064230 62 40 29
1.192795 -1.566737 17.154942 110 26 29
3.512623 0.844374 18.772800 69 61 48
5.967072 4.121130 22.400442 221 200 183
2.812053 2.309441 17.994503 215 208 192
1.469824 2.147740 16.815935 213 207 196
2.372260 -2.369692 17.180862 0 1 0
1.735099 -1.539617 17.085758 105 7 15
1.697328 6.037581 15.103903 167 158 147
0.124409 3.319538 15.960591 2 0 1
2.076987 3.671990 16.961220 240 234 218
1.310213 -0.869060 17.220488 252 250 238
2.721562 2.333965 18.007771 136 128 118
1.666880 -1.533975 17.088448 94 9 12
-0.605626 1.945017 16.982277 162 161 156
-0.626021 1.963803 16.978970 14 13 9
-0.476550 1.875629 16.980606 246 241 235
-0.582764 1.856157 16.952316 239 236 227
1.958458 2.864955 17.135443 212 213 208
7.291753 5.169121 21.478827 38 37 35
1.315811 -1.496152 17.171490 95 23 23
-9.250952 -0.506579 29.650650 90 49 37
-9.250952 -0.506579 29.650650 90 49 37
1.307516 -2.065340 17.272985 50 9 7
1.291188 -2.015382 17.286028 255 247 238
2.850305 3.588794 17.647463 94 85 70
0.789675 4.569228 15.634132 236 237 231
-7.508285 7.555884 16.213709 251 234 220
1.261427 -2.006211 17.300318 86 4 7
2.986050 3.179312 18.012856 91 84 68
0.146765 3.952146 15.698752 206 202 190
0.741098 -2.350316 17.523476 254 237 228
